# .PCD v0.7 - Point Cloud Data file format
VERSION 0.7
FIELDS x y z rgb
SIZE 4 4 4 4
TYPE F F F F
COUNT 1 1 1 1
WIDTH 1019
HEIGHT 1
VIEWPOINT 0 0 0 1 0 0 0
POINTS 1019
DATA ascii
-0.10687459 -0.030100761 3.294193 8.9429761e-39
-0.091145635 -0.031661112 3.2955701 8.9429761e-39
-0.070884928 -0.031113194 3.2964883 8.9429761e-39
-0.050674565 -0.030566638 3.2974041 8.9429761e-39
-0.025679974 -0.029757801 3.2985268 8.9429761e-39
-0.011190663 -0.028967177 3.2991552 8.9429761e-39
0.0081343334 -0.024592653 3.2997589 8.9429761e-39
-0.38801742 -0.014269564 3.2803299 8.4819979e-39
-0.37164536 -0.0093692364 3.2807572 8.4819979e-39
-0.35072663 -0.0088395467 3.2817075 8.4819979e-39
-0.32983989 -0.0083106775 3.2826562 8.4819979e-39
-0.30513674 -0.010236168 3.283958 8.4819979e-39
-0.28983855 -0.011121229 3.2847428 8.4819979e-39
-0.26816213 -0.013355272 3.2858155 8.4819979e-39
-0.24970683 -0.0097418968 3.2865398 8.4819979e-39
-0.22900279 -0.011683168 3.2876542 8.5741936e-39
-0.20766118 -0.014025543 3.285737 9.8649324e-39
-0.19052187 -0.013612352 3.2896068 8.5741936e-39
-0.17031609 -0.010176917 3.2903187 8.6663892e-39
-0.15311374 -0.0095896479 3.2910895 8.5741936e-39
-0.1294729 -0.0091286534 3.2921727 8.6663892e-39
-0.11215661 -0.010564172 3.2930913 8.3898023e-39
-0.092377946 -0.012793411 3.2941823 8.5741936e-39
-0.065984391 -0.00916701 3.2951722 8.5741936e-39
-0.050588362 -0.01062316 3.2960019 8.6663892e-39
-0.031015258 -0.0095306505 3.296849 8.7585848e-39
-0.01090078 -0.0090109343 3.2977617 8.7585848e-39
0.0092407959 -0.011412551 3.2988822 8.7585848e-39
0.027063642 -0.008760348 3.2995358 8.7585848e-39
-0.36302552 0.0057773441 3.2800963 8.2054111e-39
-0.34879202 0.0077826479 3.2806265 8.2054111e-39
-0.33026809 0.0095589925 3.2813756 8.2054111e-39
-0.30944234 0.010064822 3.2823234 8.2976067e-39
-0.28866434 0.010569513 3.2832689 8.2976067e-39
-0.2708953 0.01100108 3.2840769 8.2976067e-39
-0.2502121 0.011503465 3.285018 8.2976067e-39
-0.22950439 0.0090437979 3.2861688 8.2976067e-39
-0.20952167 0.010124104 3.2870357 8.2976067e-39
-0.18926802 0.0093454989 3.2880471 8.3898023e-39
-0.17081884 0.010479299 3.2888384 8.3898023e-39
-0.15350953 0.005695736 3.2899928 8.3898023e-39
-0.12990455 0.0085346438 3.2909069 8.4819979e-39
-0.10955732 0.0090358658 3.291832 8.4819979e-39
-0.092776194 0.0065040556 3.2928028 8.3898023e-39
-0.069005355 0.01003477 3.2936761 8.4819979e-39
-0.048800275 0.010532488 3.2945945 8.4819979e-39
-0.029442659 0.011541446 3.2954373 8.4819979e-39
-0.009669668 0.01091107 3.2964153 8.4819979e-39
0.0095984442 0.0097232107 3.2974088 8.4819979e-39
0.029339844 0.0089551648 3.2983947 8.5741936e-39
0.049166597 0.011487603 3.2991519 8.5741936e-39
0.066637188 0.015315987 3.2997069 8.4819979e-39
0.60823965 0.0050224513 3.2827148 1.0418106e-38
-0.32941896 0.023881391 3.2804062 8.0210198e-39
-0.3099114 0.029611047 3.2809231 7.9288242e-39
-0.2890932 0.028394686 3.281992 8.0210198e-39
-0.27132449 0.028807916 3.2828012 8.0210198e-39
-0.25064161 0.029288908 3.2837439 8.0210198e-39
-0.23000593 0.029768825 3.2846842 8.1132154e-39
-0.20942196 0.030247528 3.2856221 8.1132154e-39
-0.18888482 0.030725121 3.2865579 8.1132154e-39
-0.17132156 0.031133596 3.2873585 8.1132154e-39
-0.15505363 0.030250726 3.2881885 8.0210198e-39
-0.13040806 0.029139912 3.2894304 8.2054111e-39
-0.11489278 0.02972278 3.2901216 8.1132154e-39
-0.089413315 0.033756539 3.2910402 8.0210198e-39
-0.074743129 0.030068835 3.2919924 8.1132154e-39
-0.049305372 0.031040005 3.2931249 8.2054111e-39
-0.029078571 0.028586177 3.2942529 8.2976067e-39
-0.0089693451 0.029060761 3.2951684 8.2976067e-39
0.011090166 0.029534176 3.2960823 8.2976067e-39
0.031104632 0.030006522 3.2969937 8.2976067e-39
0.051069688 0.030477706 3.2979031 8.2976067e-39
0.070990033 0.030947817 3.29881 8.3898023e-39
0.088680245 0.033545312 3.2994618 8.2976067e-39
0.10488459 0.037557155 3.2999442 8.2976067e-39
-0.30131519 0.042982161 3.280386 7.8366285e-39
-0.28895783 0.047419276 3.2806566 7.7444329e-39
-0.27015612 0.050465092 3.2813292 7.7444329e-39
-0.24985716 0.049217321 3.2823761 7.7444329e-39
-0.23050743 0.050491702 3.2831993 7.7444329e-39
-0.21049684 0.050341625 3.2841547 7.8366285e-39
-0.18931539 0.048445299 3.2852881 7.8366285e-39
-0.16558197 0.051306758 3.2862072 7.7444329e-39
-0.1495437 0.048739221 3.2871454 7.9288242e-39
-0.13091154 0.049743254 3.2879539 7.9288242e-39
-0.1105651 0.050195437 3.2888827 7.9288242e-39
-0.090264678 0.050646592 3.2898092 7.9288242e-39
-0.070014685 0.051096611 3.2907333 7.9288242e-39
-0.050229136 0.0547827 3.2906632 8.6663892e-39
-0.029584043 0.049067706 3.2927847 8.0210198e-39
-0.0094751418 0.049518056 3.2937026 8.0210198e-39
0.010583982 0.049967296 3.2946177 8.0210198e-39
0.030598074 0.050415516 3.295531 8.0210198e-39
0.050562769 0.050862662 3.2964418 8.1132154e-39
0.069957711 0.049551211 3.2974498 8.1132154e-39
0.090426177 0.04884867 3.2984657 8.1132154e-39
0.10952745 0.050005365 3.2992859 8.1132154e-39
0.12568828 0.0539952 3.2997675 8.1132154e-39
-0.26514277 0.066939972 3.2804048 7.467846e-39
-0.24869187 0.070844002 3.280906 7.467846e-39
-0.23100887 0.071212642 3.2817149 7.5600416e-39
-0.20972601 0.070746638 3.2827523 7.5600416e-39
-0.18981765 0.069116905 3.2838073 7.5600416e-39
-0.16933258 0.069547504 3.2847435 7.5600416e-39
-0.14889404 0.069977097 3.2856784 7.5600416e-39
-0.13141498 0.070344508 3.2864776 7.6522373e-39
-0.10565516 0.070406169 3.2876892 7.5600416e-39
-0.090745747 0.073915519 3.2881455 7.467846e-39
-0.070447221 0.068692088 3.2894723 7.7444329e-39
-0.050304152 0.070104301 3.2903237 7.6522373e-39
-0.03008939 0.06954734 3.2913175 7.7444329e-39
-0.0099808918 0.069973461 3.2922361 7.7444329e-39
0.010077873 0.070398539 3.2931533 7.8366285e-39
0.03009155 0.070822641 3.2940679 7.8366285e-39
0.050055899 0.07124573 3.294981 7.8366285e-39
0.07054501 0.069563985 3.2960668 7.8366285e-39
0.089918561 0.069183983 3.2970076 7.8366285e-39
0.10974477 0.069607548 3.297914 7.9288242e-39
0.12952228 0.070030056 3.2988179 7.9288242e-39
0.14846101 0.074054867 3.299428 7.8366285e-39
0.16310459 0.079428926 3.2997406 7.8366285e-39
-0.24602771 0.082755342 3.2801919 7.3756504e-39
-0.23068465 0.088246182 3.280529 7.2834548e-39
-0.21085587 0.089379668 3.2813854 7.2834548e-39
-0.1903199 0.089786582 3.282326 7.2834548e-39
-0.16983524 0.090192489 3.2832646 7.2834548e-39
-0.14939706 0.090597473 3.2842009 7.3756504e-39
-0.12900987 0.091001436 3.2851348 7.3756504e-39
-0.10866882 0.091404505 3.2860661 7.3756504e-39
-0.09069401 0.089624964 3.2870405 7.3756504e-39
-0.07095179 0.089218259 3.2880013 7.467846e-39
-0.050748199 0.089622051 3.2889266 7.467846e-39
-0.030594731 0.090024874 3.2898498 7.467846e-39
-0.010486601 0.090426773 3.2907705 7.467846e-39
0.0095717721 0.090827674 3.2916894 7.467846e-39
0.029085742 0.09042263 3.292639 7.5600416e-39
0.049621478 0.088715315 3.2937286 7.5600416e-39
0.069540776 0.089116871 3.2946408 7.6522373e-39
0.089411005 0.089517429 3.2955508 7.6522373e-39
0.10923684 0.089917108 3.2964585 7.6522373e-39
0.12901399 0.090315811 3.2973638 7.6522373e-39
0.1498581 0.091314785 3.2982769 7.6522373e-39
0.16921122 0.090599984 3.2992413 7.7444329e-39
0.18656214 0.095809616 3.2996933 7.6522373e-39
-0.20828781 0.1046371 3.2804306 7.0068679e-39
-0.19026971 0.10965858 3.2809279 7.0068679e-39
-0.17033784 0.11083535 3.281785 7.0068679e-39
-0.15044025 0.10943799 3.2828233 7.0068679e-39
-0.12944135 0.10865336 3.2838697 7.0990635e-39
-0.10910063 0.10903541 3.2848032 7.0990635e-39
-0.089613058 0.10993505 3.2856596 7.0990635e-39
-0.069707833 0.1091884 3.2866516 7.1912591e-39
-0.051253103 0.11012198 3.2874575 7.1912591e-39
-0.031100012 0.11050053 3.2883821 7.1912591e-39
-0.010992281 0.11087821 3.2893043 7.1912591e-39
0.0090657482 0.11125495 3.2902248 7.2834548e-39
0.029678656 0.11047613 3.2912529 7.2834548e-39
0.0491147 0.10909463 3.2922678 7.2834548e-39
0.069033623 0.10947221 3.2931814 7.2834548e-39
0.088903487 0.10984881 3.2940927 7.3756504e-39
0.11032376 0.11108352 3.2950175 7.3756504e-39
0.12973627 0.10979414 3.2960246 7.3756504e-39
0.15105239 0.11102687 3.2969441 7.3756504e-39
0.17021433 0.1096554 3.297945 7.467846e-39
0.19020212 0.10903287 3.2942333 8.1132154e-39
0.20881999 0.11269875 3.2995529 7.467846e-39
0.22105296 0.11523679 3.2999513 7.467846e-39
-0.18532157 0.12531957 3.280057 6.8224766e-39
-0.16853485 0.13020498 3.2805049 6.730281e-39
-0.14982049 0.12969974 3.2814238 6.730281e-39
-0.12994467 0.12924533 3.2823944 6.730281e-39
-0.10960437 0.12960288 3.2833297 6.8224766e-39
-0.089314647 0.1299596 3.2842619 6.8224766e-39
-0.069070727 0.13031545 3.2851925 6.8224766e-39
-0.048877046 0.13067046 3.2861211 6.8224766e-39
-0.028728873 0.13102466 3.2870469 6.9146722e-39
-0.010944066 0.13000901 3.2879581 6.9146722e-39
0.009874817 0.13198562 3.2888017 6.9146722e-39
0.029771706 0.12972042 3.2899005 7.0068679e-39
0.049398191 0.12895635 3.2908812 7.0068679e-39
0.070579089 0.13039057 3.2917798 7.0068679e-39
0.090112105 0.12962744 3.2927556 7.0990635e-39
0.11104827 0.13058044 3.2936764 7.0990635e-39
0.13082026 0.13093144 3.2945855 7.0990635e-39
0.15054381 0.13128155 3.2954917 7.1912591e-39
0.1707869 0.12953845 3.2965703 7.1912591e-39
0.18992764 0.12909271 3.2975051 7.1912591e-39
0.20951554 0.12944378 3.2984056 7.1912591e-39
0.2282277 0.13101357 3.2991781 7.2834548e-39
0.24727941 0.13645215 3.2996941 7.1912591e-39
-0.14926848 0.14510825 3.2803636 6.4536941e-39
-0.130448 0.14983539 3.2809188 6.4536941e-39
-0.11010806 0.15016848 3.2818553 6.5458897e-39
-0.089818709 0.15050074 3.2827902 6.5458897e-39
-0.069575176 0.15083222 3.2837219 6.5458897e-39
-0.049381904 0.15116292 3.2846522 6.5458897e-39
-0.029234091 0.15149285 3.2855799 6.6380854e-39
-0.008504671 0.14949535 3.2866993 6.6380854e-39
0.010988861 0.14923331 3.2876382 6.6380854e-39
0.030992132 0.1495643 3.288559 6.730281e-39
0.050950557 0.14989455 3.2894778 6.730281e-39
0.070859812 0.15022403 3.2903945 6.730281e-39
0.090724513 0.15055272 3.2913091 6.730281e-39
0.11054042 0.15088065 3.2922213 6.8224766e-39
0.13031209 0.15120783 3.2931318 6.8224766e-39
0.15010792 0.14864111 3.2942472 6.9146722e-39
0.16978723 0.14897016 3.2951529 6.9146722e-39
0.18941836 0.14929837 3.2960567 6.9146722e-39
0.20900592 0.14962588 3.2969582 7.0068679e-39
0.22854576 0.14995256 3.2978578 7.0068679e-39
0.25082242 0.15032503 3.2988832 7.0068679e-39
0.26836884 0.15253387 3.2995555 7.0068679e-39
0.28121269 0.15657669 3.2998769 7.0068679e-39
-0.1239966 0.16366644 3.2802484 6.1771072e-39
-0.10926595 0.16846634 3.2806048 6.1771072e-39
-0.090322755 0.17103979 3.2813182 6.1771072e-39
-0.070007555 0.16841641 3.2824621 6.2693028e-39
-0.049814589 0.16872627 3.2833936 6.2693028e-39
-0.029667139 0.16903539 3.2843225 6.3614985e-39
-0.0095695397 0.16934375 3.2852495 6.3614985e-39
0.010482905 0.16965146 3.2861745 6.3614985e-39
0.03048579 0.1699584 3.2870975 6.4536941e-39
0.050443858 0.17026463 3.2880177 6.4536941e-39
0.070352748 0.17057012 3.2889364 6.4536941e-39
0.090217128 0.17087491 3.2898524 6.4536941e-39
0.11003264 0.17117898 3.2907662 6.5458897e-39
0.12980394 0.17148234 3.2916782 6.5458897e-39
0.1495994 0.1688921 3.2927954 6.5458897e-39
0.16927837 0.16919744 3.2937031 6.6380854e-39
0.1889092 0.169502 3.2946079 6.6380854e-39
0.21128961 0.16984929 3.29564 6.6380854e-39
0.23082469 0.17015241 3.2965412 6.6380854e-39
0.25031215 0.17045476 3.2974398 6.730281e-39
0.2697565 0.17075646 3.2983365 6.730281e-39
0.28858548 0.17162234 3.2991641 6.730281e-39
0.30560043 0.1770469 3.2995849 6.730281e-39
-0.086376086 0.18723768 3.2803621 5.9005203e-39
-0.07051193 0.18892938 3.2809916 5.9005203e-39
-0.050319351 0.18921492 3.281925 5.9005203e-39
-0.030172279 0.18949984 3.282856 5.9927159e-39
-0.010075046 0.18978399 3.2837846 5.9927159e-39
0.0099769961 0.19006756 3.2847114 5.9927159e-39
0.029979544 0.19035041 3.2856355 6.0849116e-39
0.049937218 0.19063263 3.2865582 6.0849116e-39
0.069845743 0.19091415 3.2874777 6.0849116e-39
0.089709744 0.19119507 3.2883956 6.1771072e-39
0.10959744 0.18857595 3.2895198 6.2693028e-39
0.12936842 0.18885893 3.2904329 6.2693028e-39
0.14909098 0.1891412 3.2913437 6.2693028e-39
0.17079726 0.18997705 3.2923095 6.2693028e-39
0.19009572 0.18915045 3.2932789 6.3614985e-39
0.21078008 0.19002414 3.2941937 6.3614985e-39
0.23031479 0.19030376 3.2950964 6.4536941e-39
0.24980192 0.19058268 3.2959964 6.4536941e-39
0.26924598 0.19086094 3.2968946 6.4536941e-39
0.28864264 0.19113857 3.297791 6.4536941e-39
0.31099144 0.19057679 3.2988856 6.5458897e-39
0.3292304 0.19335498 3.2995508 6.4536941e-39
0.34092358 0.19760808 3.2998028 6.4536941e-39
-0.065096393 0.20365712 3.2802088 5.7161291e-39
-0.049642723 0.20854557 3.2805939 5.6239334e-39
-0.030677382 0.20996234 3.281389 5.6239334e-39
-0.010580535 0.2102223 3.2823198 5.7161291e-39
0.0094711334 0.21048176 3.2832479 5.7161291e-39
0.029473288 0.21074054 3.284174 5.8083247e-39
0.049430635 0.21099876 3.2850983 5.8083247e-39
0.069338784 0.21125636 3.28602 5.8083247e-39
0.089202404 0.2115133 3.2869394 5.9005203e-39
0.10908975 0.20887053 3.2880642 5.9005203e-39
0.12971114 0.2098089 3.2889717 5.9005203e-39
0.14916007 0.20881692 3.2899599 5.9927159e-39
0.171067 0.20968306 3.2909327 5.9927159e-39
0.19069277 0.20994034 3.2918413 5.9927159e-39
0.2102706 0.21019702 3.2927473 6.0849116e-39
0.22980498 0.21045308 3.2936516 6.0849116e-39
0.24929179 0.21070856 3.2945533 6.0849116e-39
0.27093905 0.21156651 3.2955148 6.1771072e-39
0.29006529 0.21058062 3.2964871 6.1771072e-39
0.30965865 0.20951647 3.2974873 6.1771072e-39
0.32962066 0.20889951 3.2984731 6.2693028e-39
0.34811381 0.20966467 3.2992923 6.2693028e-39
0.36433682 0.21316868 3.2998109 6.2693028e-39
-0.0424705 0.22151342 3.2800183 5.4395422e-39
-0.029873824 0.22400633 3.2804375 5.4395422e-39
-0.010497843 0.23008117 3.2809238 5.3473465e-39
0.0089653376 0.2308939 3.281785 5.3473465e-39
0.02896714 0.23112862 3.2827129 5.4395422e-39
0.048996437 0.22845383 3.2838469 5.5317378e-39
0.068904296 0.22869085 3.2847698 5.5317378e-39
0.089886144 0.2295209 3.2857018 5.5317378e-39
0.1093666 0.22864516 3.2866833 5.6239334e-39
0.13117169 0.22943226 3.2876575 5.6239334e-39
0.15088911 0.22966701 3.2885711 5.7161291e-39
0.17055826 0.22990122 3.2894835 5.7161291e-39
0.19018367 0.23013492 3.2903936 5.7161291e-39
0.20976113 0.230368 3.2913017 5.8083247e-39
0.22929522 0.2306006 3.2922068 5.8083247e-39
0.24878165 0.23083264 3.2931106 5.8083247e-39
0.27099767 0.23109713 3.2941406 5.9005203e-39
0.29038945 0.23132801 3.2950394 5.9005203e-39
0.31034479 0.22927387 3.2961268 5.9005203e-39
0.32993928 0.22959721 3.2970285 5.9927159e-39
0.34892878 0.22859459 3.2979963 5.9927159e-39
0.37031734 0.22942495 3.2989473 5.9927159e-39
0.38858333 0.23412633 3.2994783 5.9927159e-39
0.40292025 0.23836596 3.2998552 5.9927159e-39
-0.0028459281 0.24534839 3.2802081 5.1629553e-39
0.01165287 0.25068906 3.2805161 5.0707596e-39
0.030188337 0.2509501 3.2813728 5.0707596e-39
0.050752141 0.24942192 3.2824514 5.1629553e-39
0.070381239 0.24837953 3.2834518 5.1629553e-39
0.09109287 0.24927218 3.2843664 5.1629553e-39
0.11090259 0.24948427 3.2852869 5.2551509e-39
0.13066369 0.24969578 3.2862043 5.2551509e-39
0.15038076 0.24990682 3.2871206 5.3473465e-39
0.17004955 0.25011736 3.288034 5.3473465e-39
0.19456893 0.25037986 3.2891729 5.3473465e-39
0.20925179 0.25053701 3.2898548 5.4395422e-39
0.2303564 0.25158483 3.2907782 5.4395422e-39
0.25473508 0.25040746 3.2920113 5.4395422e-39
0.27048722 0.25119245 3.2926993 5.5317378e-39
0.28936896 0.24967401 3.2936981 5.5317378e-39
0.30965057 0.24893825 3.2947073 5.6239334e-39
0.3313503 0.24898297 3.2957284 5.7161291e-39
0.35060102 0.24919237 3.2966225 5.7161291e-39
0.36500412 0.249349 3.2972915 5.7161291e-39
0.39094123 0.25014913 3.2984595 5.7161291e-39
0.40839046 0.25053903 3.2992558 5.7161291e-39
0.42343032 0.2537778 3.2997375 5.7161291e-39
0.11619914 0.2633597 3.2802351 1.4290323e-38
0.126774 0.26378372 3.2827682 1.4290323e-38
0.15001768 0.26436278 3.2860842 5.0707596e-39
0.16967893 0.26455635 3.2869985 5.0707596e-39
0.18931101 0.26474962 3.2879119 5.1629553e-39
0.20888795 0.26494238 3.2888227 5.1629553e-39
0.22562718 0.26510715 3.2896008 5.1629553e-39
0.25068849 0.26535389 3.2907665 5.2551509e-39
0.27012259 0.26554525 3.2916706 5.3473465e-39
0.29067907 0.26345366 3.2927883 5.3473465e-39
0.30893093 0.26306275 3.2936773 5.3473465e-39
0.33098495 0.26328364 3.294703 5.4395422e-39
0.3502354 0.26347649 3.295598 5.4395422e-39
0.36943939 0.26366884 3.2964916 5.5317378e-39
0.39206856 0.26456037 3.2956789 6.5458897e-39
0.40996233 0.26618147 3.2935023 8.4819979e-39
0.4291186 0.26656964 3.2956531 8.4819979e-39
0.44887277 0.27046609 3.2957704 1.1340062e-38
0.46977434 0.27284458 3.298413 1.4290323e-38
0.6711542 0.2763637 3.2824667 1.4290323e-38
0.69010675 0.27713057 3.2870507 1.4290323e-38
0.70905912 0.27789745 3.2916346 1.4290323e-38
0.73071915 0.27877381 3.296874 1.4290323e-38
0.93101442 0.28243032 3.2831957 1.4290323e-38
0.94959617 0.2831822 3.2876906 1.4290323e-38
0.96817786 0.283934 3.2921846 1.4290323e-38
0.98941445 0.28479329 3.2973213 1.4290323e-38
-0.050407007 0.30540714 3.2868609 1.1801041e-38
-0.029651063 0.30540586 3.2868471 1.1801041e-38
-0.0088952836 0.3054046 3.2868335 1.1801041e-38
0.0088952426 0.30540347 3.2868218 1.1893236e-38
0.02965069 0.30540222 3.286808 1.1893236e-38
0.050405972 0.30540094 3.2867942 1.1893236e-38
0.068196081 0.30539984 3.2867823 1.1893236e-38
0.088951029 0.30539855 3.2867684 1.1893236e-38
0.10970582 0.30539727 3.2867546 1.1985432e-38
0.13046041 0.30539599 3.286741 1.1985432e-38
0.15121485 0.30539471 3.2867274 1.1985432e-38
0.16900425 0.30539364 3.2867155 1.1985432e-38
0.18975835 0.30539235 3.2867017 1.1985432e-38
0.21051228 0.30539107 3.2866879 1.1985432e-38
0.22830126 0.30539 3.2866764 1.1432258e-38
0.24905485 0.30538869 3.2866623 1.0049324e-38
0.26980829 0.30538744 3.2866488 8.9429761e-39
0.29056156 0.30538613 3.2866349 8.8507805e-39
0.31131467 0.30538487 3.2866211 8.7585848e-39
0.3291029 0.30538377 3.2866094 8.6663892e-39
0.34985566 0.30538249 3.2865956 8.4819979e-39
0.37060827 0.30538124 3.286582 7.5600416e-39
0.38839608 0.30538011 3.2865703 5.9005203e-39
0.40914834 0.30537882 3.2865562 5.8083247e-39
0.42990047 0.30537757 3.2865427 5.7161291e-39
0.45065236 0.30537629 3.2865288 5.6239334e-39
0.47140414 0.30537498 3.286515 5.5317378e-39
0.48919123 0.30537391 3.2865036 5.4395422e-39
0.50994265 0.30537266 3.2864895 5.3473465e-39
0.53069395 0.30537134 3.2864759 5.2551509e-39
0.54848063 0.30537027 3.2864642 5.1629553e-39
0.56923151 0.30536899 3.2864504 4.978564e-39
0.58998227 0.30536771 3.2864368 4.8863684e-39
0.61073285 0.30536643 3.2864227 4.7019771e-39
0.63148332 0.30536515 3.2864091 4.5175859e-39
0.64926922 0.30536407 3.2863975 4.4253902e-39
0.67001933 0.30536276 3.2863836 4.240999e-39
0.6907692 0.30536151 3.28637 4.0566077e-39
0.70855474 0.30536041 3.2863579 3.8722165e-39
0.72930431 0.30535915 3.2863443 3.6878252e-39
0.75005382 0.30535787 3.2863307 3.5034339e-39
0.77080303 0.30535659 3.2863169 3.3190427e-39
0.79155207 0.30535531 3.286303 3.1346514e-39
0.8093369 0.30535421 3.2862916 2.9502602e-39
0.83008564 0.30535293 3.2862775 2.8580645e-39
0.85083425 0.30535167 3.2862639 2.8580645e-39
0.86861861 0.30535054 3.286252 2.8580645e-39
0.88936687 0.30534929 3.2862384 2.8580645e-39
0.91011494 0.30534798 3.2862244 2.8580645e-39
0.93086278 0.30534673 3.2862108 2.8580645e-39
0.95161057 0.30534548 3.2861972 2.8580645e-39
0.96939421 0.30534434 3.2861853 2.8580645e-39
0.99014157 0.30534309 3.2861714 2.8580645e-39
1.0108889 0.30534181 3.2861581 2.8580645e-39
1.0286721 0.30534071 3.2861459 2.8580645e-39
1.049419 0.30533943 3.2861321 2.8580645e-39
-1.1870189 -1.1059213 3.3195782 8.8507805e-39
-1.1760917 -1.1028972 3.3198812 9.0351717e-39
-1.1862423 -1.0911479 3.318573 8.8507805e-39
-1.1697913 -1.0897707 3.319253 9.1273674e-39
-1.1518322 -1.0835493 3.3196621 9.3117586e-39
-1.1866549 -1.0722748 3.3172231 8.8507805e-39
-1.1702048 -1.0709146 3.317904 9.1273674e-39
-1.1505022 -1.0692858 3.3187191 9.3117586e-39
-1.1316777 -1.0669441 3.3194432 9.4039542e-39
-1.1178963 -1.0603113 3.3196261 9.4961499e-39
-1.1871364 -1.050258 3.3156481 8.7585848e-39
-1.1713028 -1.0508567 3.316438 9.0351717e-39
-1.1509157 -1.0504519 3.3173718 9.3117586e-39
-1.1312563 -1.0488468 3.318187 9.4039542e-39
-1.1116118 -1.048498 3.3190899 9.4961499e-39
-1.0963645 -1.0480884 3.3197811 9.4039542e-39
-1.187618 -1.028244 3.3140731 8.7585848e-39
-1.1705207 -1.0291605 3.3149452 9.0351717e-39
-1.151329 -1.0316197 3.3160248 9.219563e-39
-1.1316704 -1.0300351 3.3168411 9.4039542e-39
-1.112054 -1.0284541 3.317656 9.4961499e-39
-1.092411 -1.0300049 3.3186922 9.4039542e-39
-1.0737787 -1.029842 3.3195612 9.3117586e-39
-1.0599492 -1.0242543 3.3198199 9.219563e-39
-1.1880307 -1.0093765 3.3127232 8.7585848e-39
-1.1715815 -1.0080734 3.3134081 9.0351717e-39
-1.152389 -1.010554 3.3144896 9.219563e-39
-1.1320841 -1.0112253 3.3154953 9.4039542e-39
-1.1124684 -1.0096645 3.3163116 9.4039542e-39
-1.0916059 -1.0073785 3.3171356 9.4039542e-39
-1.0702467 -1.0116017 3.3184414 9.3117586e-39
-1.0480769 -1.0100121 3.319376 9.0351717e-39
-1.0311894 -1.0031979 3.3196931 8.7585848e-39
-1.1884434 -0.99051064 3.3113737 8.6663892e-39
-1.1719943 -0.98922473 3.3120596 8.9429761e-39
-1.1516104 -0.98888808 3.3129983 9.219563e-39
-1.1331801 -0.99121422 3.3140328 9.3117586e-39
-1.1128825 -0.99087673 3.3149672 9.4039542e-39
-1.0900528 -0.98908418 3.3159187 9.4039542e-39
-1.0666367 -0.98952055 3.3170552 9.219563e-39
-1.0483408 -0.99080926 3.3180101 9.0351717e-39
-1.028232 -0.99047399 3.3189356 8.7585848e-39
-1.0110395 -0.98703927 3.3195052 8.4819979e-39
-0.99607414 -0.98170483 3.3198352 8.2054111e-39
-1.1888559 -0.97164649 3.310024 8.6663892e-39
-1.1724074 -0.97037774 3.3107116 8.9429761e-39
-1.1473753 -0.96883935 3.3117847 9.219563e-39
-1.1313795 -0.96878284 3.3125362 9.3117586e-39
-1.110033 -0.9718377 3.3137593 9.4039542e-39
-1.0872093 -0.97006935 3.3147123 9.3117586e-39
-1.0676931 -0.96855718 3.3155272 9.219563e-39
-1.0475788 -0.96927118 3.3165271 9.0351717e-39
-1.028648 -0.97177529 3.3175976 8.7585848e-39
-1.0092573 -0.97026616 3.3184066 8.3898023e-39
-0.98990875 -0.96876019 3.3192139 8.0210198e-39
-0.97231311 -0.96272326 3.3196189 7.6522373e-39
-1.189778 -0.95102316 3.3085263 8.6663892e-39
-1.1728202 -0.95153224 3.3093631 8.9429761e-39
-1.1507493 -0.94928187 3.3102467 9.219563e-39
-1.1282157 -0.94876623 3.3112741 9.3117586e-39
-1.1078256 -0.95057601 3.3123646 9.4039542e-39
-1.0876241 -0.95131195 3.3133705 9.3117586e-39
-1.0681082 -0.94982022 3.3141868 9.219563e-39
-1.0486344 -0.94833165 3.3150008 9.0351717e-39
-1.0291333 -0.94996226 3.3160367 8.7585848e-39
-1.0096738 -0.95158929 3.3170702 8.4819979e-39
-0.99032551 -0.95010364 3.317879 8.0210198e-39
-0.97101879 -0.94862103 3.3186858 7.6522373e-39
-0.95496047 -0.94738811 3.3193574 7.2834548e-39
-1.1881555 -0.92829973 3.3070009 8.6663892e-39
-1.1710776 -0.93095458 3.3079944 8.9429761e-39
-1.1482749 -0.93144417 3.3091056 9.219563e-39
-1.1273344 -0.92924374 3.3099391 9.3117586e-39
-1.1070545 -0.92897493 3.310878 9.4039542e-39
-1.0886812 -0.93032736 3.3118408 9.3117586e-39
-1.0685234 -0.93108487 3.3128459 9.219563e-39
-1.04905 -0.92961651 3.3136618 9.0351717e-39
-1.0296186 -0.92815143 3.3144758 8.7585848e-39
-1.0107276 -0.93069458 3.315547 8.4819979e-39
-0.99074239 -0.93144852 3.3165438 8.0210198e-39
-0.97143596 -0.92998612 3.3173523 7.6522373e-39
-0.955378 -0.92876977 3.3180251 7.2834548e-39
-1.1869398 -0.90853566 3.3056645 8.6663892e-39
-1.1665655 -0.90932095 3.3066823 8.9429761e-39
-1.1473904 -0.9119035 3.3077698 9.219563e-39
-1.1277483 -0.91044968 3.3085947 9.3117586e-39
-1.1081488 -0.90899891 3.3094172 9.4039542e-39
-1.0879129 -0.90875292 3.3103561 9.3117586e-39
-1.069616 -0.91115016 3.3113887 9.219563e-39
-1.0494657 -0.9109031 3.3123226 9.0351717e-39
-1.0300347 -0.90945816 3.3131382 8.8507805e-39
-1.0099721 -0.90921277 3.3140683 8.3898023e-39
-0.99179512 -0.91057765 3.3150229 8.1132154e-39
-0.97185314 -0.91135281 3.3160186 7.6522373e-39
-0.95282048 -0.91005653 3.3175492 7.1912591e-39
-1.1873524 -0.88968235 3.3043158 8.5741936e-39
-1.1676254 -0.88824952 3.3051465 8.9429761e-39
-1.1478727 -0.88995522 3.3061996 9.1273674e-39
-1.1281621 -0.89165711 3.3072503 9.3117586e-39
-1.1085631 -0.89022678 3.3080747 9.4039542e-39
-1.0890062 -0.88879967 3.308897 9.3117586e-39
-1.0688509 -0.88960254 3.3099058 9.219563e-39
-1.0505573 -0.89099115 3.3108673 9.0351717e-39
-1.0304506 -0.89076668 3.311801 8.8507805e-39
-1.0110618 -0.88934505 3.3126156 8.4819979e-39
-0.99104273 -0.88912231 3.3135452 8.1132154e-39
-0.97290504 -0.89050555 3.3144989 7.6522373e-39
-0.95324308 -0.89144379 3.3162322 7.1912591e-39
-1.1877648 -0.87083054 3.3029675 8.5741936e-39
-1.1680382 -0.86941838 3.3037992 8.9429761e-39
-1.1483546 -0.86800915 3.3046291 9.1273674e-39
-1.1292205 -0.87063098 3.3057175 9.3117586e-39
-1.1089773 -0.87145638 3.3067315 9.3117586e-39
-1.0894209 -0.8700496 3.3075557 9.3117586e-39
-1.0699068 -0.86864579 3.3083782 9.219563e-39
-1.0497952 -0.86947012 3.309386 9.0351717e-39
-1.0315411 -0.87087739 3.3103466 8.8507805e-39
-1.0114781 -0.87067538 3.31128 8.4819979e-39
-0.99213147 -0.86927694 3.3120949 8.1132154e-39
-0.97106141 -0.86831945 3.3130217 7.6522373e-39
-0.95315599 -0.87054741 3.3148496 7.1912591e-39
-1.1881771 -0.85198045 3.3016188 8.5741936e-39
-1.1684512 -0.85058874 3.3024521 8.9429761e-39
-1.1487681 -0.84920007 3.3032832 9.1273674e-39
-1.1284461 -0.84902042 3.3042305 9.219563e-39
-1.1100347 -0.85045445 3.3052008 9.3117586e-39
-1.0898355 -0.85130107 3.3062143 9.3117586e-39
-1.0703219 -0.84991771 3.3070378 9.219563e-39
-1.0508504 -0.84853721 3.3078604 9.0351717e-39
-1.0307822 -0.84938258 3.3088672 8.7585848e-39
-1.0125678 -0.85080832 3.3098276 8.4819979e-39
-0.99254799 -0.85062909 3.31076 8.1132154e-39
-0.97003138 -0.84902477 3.3117104 7.6522373e-39
-0.95114583 -0.84786057 3.3136814 7.1912591e-39
-1.1863497 -0.83507413 3.300513 8.5741936e-39
-1.168864 -0.83176082 3.3011048 8.8507805e-39
-1.1491814 -0.83039272 3.3019381 9.1273674e-39
-1.1295412 -0.82902747 3.3027687 9.219563e-39
-1.1092634 -0.82887042 3.3037155 9.3117586e-39
-1.0908921 -0.8303231 3.3046851 9.3117586e-39
-1.0707369 -0.83119118 3.3056982 9.219563e-39
-1.0512657 -0.82983094 3.3065217 9.0351717e-39
-1.0318366 -0.82847369 3.3073432 8.8507805e-39
-1.0118119 -0.82934028 3.3083501 8.4819979e-39
-0.99139041 -0.83031607 3.3093824 8.1132154e-39
-0.96850646 -0.83088773 3.3105035 7.6522373e-39
-0.95157087 -0.82925546 3.3123727 7.1912591e-39
-1.1648066 -0.81681764 3.3002429 8.8507805e-39
-1.1487579 -0.81231475 3.300683 9.1273674e-39
-1.1299547 -0.81024212 3.3014247 9.219563e-39
-1.1103578 -0.8089003 3.3022559 9.3117586e-39
-1.090124 -0.80876583 3.3032017 9.3117586e-39
-1.0718292 -0.81126255 3.3042417 9.1273674e-39
-1.0516812 -0.81112641 3.3051832 9.0351717e-39
-1.0322523 -0.80978924 3.3060057 8.8507805e-39
-1.0115889 -0.80774462 3.3068378 8.4819979e-39
-0.98885179 -0.80991369 3.3080642 8.0210198e-39
-0.96765202 -0.81155854 3.3091807 7.5600416e-39
-0.95199585 -0.81065148 3.3110635 7.1912591e-39
-1.1289777 -0.79512691 3.3004053 9.219563e-39
-1.1107717 -0.79013711 3.3009131 9.3117586e-39
-1.0912173 -0.78881836 3.3017435 9.219563e-39
-1.071064 -0.78973168 3.3027594 9.1273674e-39
-1.0527724 -0.79122025 3.3037279 9.0351717e-39
-1.0326679 -0.79110652 3.3046694 8.8507805e-39
-1.0100558 -0.78957385 3.3056288 8.4819979e-39
-0.98749757 -0.78804487 3.3065858 8.0210198e-39
-0.96813864 -0.78983992 3.3076272 7.5600416e-39
-0.95242083 -0.79204893 3.3097551 7.1912591e-39
-1.1077846 -0.77741134 3.3001568 9.3117586e-39
-1.090662 -0.77180046 3.3005698 9.219563e-39
-1.0721197 -0.76878154 3.3012321 9.1273674e-39
-1.0520103 -0.76971602 3.3022475 9.0351717e-39
-1.0306189 -0.77130139 3.30337 8.7585848e-39
-1.0072448 -0.77070093 3.3044307 8.3898023e-39
-0.9879142 -0.76941079 3.3052526 8.0210198e-39
-0.96862519 -0.76812345 3.3060725 7.6522373e-39
-0.9529165 -0.77034783 3.3082285 7.1912591e-39
-1.070807 -0.75463581 3.300297 9.1273674e-39
-1.0507219 -0.74806958 3.3007824 9.0351717e-39
-1.0280918 -0.75051421 3.3020234 8.7585848e-39
-1.0083338 -0.75084692 3.3029797 8.3898023e-39
-0.98833084 -0.75077832 3.3039191 8.0210198e-39
-0.96904212 -0.749511 3.3047402 7.6522373e-39
-0.95341223 -0.74864841 3.3067021 7.2834548e-39
-1.0436223 -0.73569626 3.3002453 8.9429761e-39
-1.0267618 -0.72915316 3.30058 8.6663892e-39
-1.007579 -0.7294035 3.3015034 8.3898023e-39
-0.9894188 -0.7309469 3.3024697 8.0210198e-39
-0.96712154 -0.72800243 3.3090901 9.1273674e-39
-0.9538371 -0.7300505 3.3053932 7.2834548e-39
-1.0069156 -0.71309233 3.3003845 8.3898023e-39
-0.98866701 -0.7095297 3.3009946 8.0210198e-39
-0.97054607 -0.71109104 3.3019605 7.6522373e-39
-0.9542619 -0.71145403 3.3040853 7.2834548e-39
-0.98314506 -0.69448817 3.3001952 7.9288242e-39
-0.96891195 -0.69152737 3.3006585 7.6522373e-39
-0.95475751 -0.68975985 3.3025589 7.2834548e-39
-0.95249391 -0.66804427 3.3025455 7.1912591e-39
-0.95292634 -0.64945066 3.30126 7.2834548e-39
-0.9532147 -0.6370554 3.3004031 7.2834548e-39
-0.95551068 -0.58320272 3.3197138 6.4536941e-39
-0.95580071 -0.57072902 3.3188505 5.7161291e-39
-0.95623577 -0.55201924 3.3175569 5.8083247e-39
-0.95674324 -0.53019273 3.3160472 5.7161291e-39
-0.95725077 -0.50836766 3.314537 5.8083247e-39
-0.95768571 -0.48966169 3.3132436 5.9927159e-39
-0.95812058 -0.47095692 3.3119497 5.9927159e-39
-0.6101644 -0.46035272 3.3012941 8.3898023e-39
-0.58214855 -0.46988627 3.3032892 9.3117586e-39
-0.57951236 -0.47033614 3.3034453 8.3898023e-39
-0.62279129 -0.45284492 3.300169 1.2169823e-38
-0.61052978 -0.44919175 3.3004899 1.2077628e-38
-0.592062 -0.44826877 3.3012969 1.2077628e-38
-0.5705663 -0.44719452 3.3022356 1.2077628e-38
-0.54912066 -0.44612283 3.3031726 1.2077628e-38
-0.53532791 -0.44307053 3.3036089 1.0049324e-38
-0.5094353 -0.44413948 3.3049064 1.2077628e-38
-0.48485893 -0.44667727 3.3062453 1.0879084e-38
-0.46985573 -0.44517541 3.3068476 1.2077628e-38
-0.45168161 -0.44426399 3.3076415 1.2077628e-38
-0.60457993 -0.43978304 3.3001072 1.2077628e-38
-0.58778739 -0.43364394 3.3004675 1.1985432e-38
-0.57465863 -0.43546292 3.3012156 1.0141519e-38
-0.54947472 -0.43100283 3.3020899 1.1985432e-38
-0.53113574 -0.43010214 3.3028922 1.1985432e-38
-0.50979 -0.42905378 3.3038254 1.1985432e-38
-0.48785767 -0.42918298 3.3048704 1.1985432e-38
-0.47021103 -0.43012375 3.3057697 1.1985432e-38
-0.45152152 -0.42970428 3.306623 1.1985432e-38
-0.42997587 -0.43169457 3.3077803 1.1985432e-38
-0.40970722 -0.43014508 3.3086274 1.1985432e-38
-0.39165896 -0.42925242 3.3094163 1.1985432e-38
-0.36993754 -0.42909977 3.310431 1.1985432e-38
-0.34962016 -0.43016636 3.3114657 1.1985432e-38
-0.3333813 -0.4308598 3.3122811 1.0510302e-38
-0.31076112 -0.43122408 3.3133743 1.1985432e-38
-0.28994551 -0.4301874 3.3142841 1.1985432e-38
-0.26918229 -0.42915329 3.3151913 1.1985432e-38
-0.24784677 -0.42928061 3.3162079 1.1985432e-38
-0.23067896 -0.43020841 3.3170834 1.1985432e-38
-0.21063167 -0.42980003 3.318001 1.1985432e-38
-0.18960637 -0.43386447 3.3192801 1.0510302e-38
-0.17093688 -0.42623568 3.3196235 1.1985432e-38
-0.93504286 -0.41026732 3.3094785 1.2077628e-38
-0.56409419 -0.41758227 3.3004532 1.1893236e-38
-0.54931605 -0.41162187 3.3007309 1.1801041e-38
-0.53219998 -0.41079947 3.3014805 1.1801041e-38
-0.51021552 -0.41095245 3.3025293 1.1801041e-38
-0.49251291 -0.41314077 3.3042269 1.0325911e-38
-0.47070831 -0.40905306 3.3042605 1.1801041e-38
-0.44860613 -0.40970975 3.3053503 1.1801041e-38
-0.42829126 -0.41001987 3.3063312 1.1893236e-38
-0.41073385 -0.40999144 3.3071578 1.1893236e-38
-0.38991556 -0.41062266 3.3081851 1.1893236e-38
-0.37385228 -0.40825301 3.3087766 1.0694693e-38
-0.35012007 -0.40924081 3.3099663 1.1801041e-38
-0.32921392 -0.40822849 3.3108821 1.1801041e-38
-0.30903101 -0.41055599 3.3119993 9.5883455e-39
-0.29044661 -0.40933371 3.3127904 1.1893236e-38
-0.26961219 -0.41130012 3.3139122 1.1893236e-38
-0.24889679 -0.41028985 3.3148191 1.1893236e-38
-0.23118134 -0.40942591 3.3155947 1.1893236e-38
-0.20985945 -0.40929914 3.3165922 1.1893236e-38
-0.18991463 -0.41037869 3.3176098 1.1893236e-38
-0.16939223 -0.40937433 3.3185079 1.1893236e-38
-0.15202592 -0.4119719 3.3195112 1.097128e-38
-0.1343928 -0.40470573 3.3198309 1.1893236e-38
-0.52896017 -0.3942872 3.3005071 9.5883455e-39
-0.5100885 -0.39041126 3.3010867 1.1708845e-38
-0.49019164 -0.39068353 3.3020458 1.1708845e-38
-0.4711346 -0.39099419 3.3029675 1.1708845e-38
-0.44993752 -0.38999707 3.3038976 1.1708845e-38
-0.43407655 -0.38925093 3.3045938 1.1708845e-38
-0.41007385 -0.38932249 3.3057315 1.1708845e-38
-0.38958502 -0.38999283 3.3067465 1.1708845e-38
-0.3691057 -0.39000681 3.3077145 1.1708845e-38
-0.35054848 -0.39130625 3.308682 1.1708845e-38
-0.32964274 -0.39031562 3.3095989 1.1708845e-38
-0.31190979 -0.38559783 3.3101034 1.0233715e-38
-0.29044825 -0.38895476 3.311353 1.1708845e-38
-0.27011371 -0.39047328 3.3124199 1.1708845e-38
-0.24367931 -0.39286262 3.3138366 1.0786889e-38
-0.23223054 -0.39045438 3.3142076 1.1708845e-38
-0.21099135 -0.39062983 3.3152218 1.1708845e-38
-0.19042638 -0.38964826 3.316124 1.1708845e-38
-0.16989575 -0.38866824 3.317024 1.1708845e-38
-0.14934841 -0.39064535 3.3181331 1.1708845e-38
-0.12952128 -0.38910496 3.3189611 1.1708845e-38
-0.1109445 -0.38585442 3.3196084 1.1708845e-38
0.27853569 -0.38036597 3.319994 2.8580645e-39
0.29051444 -0.3803643 3.3199794 2.8580645e-39
0.30998081 -0.38186041 3.3199673 2.8580645e-39
0.32944694 -0.38335648 3.3199549 2.8580645e-39
0.35126576 -0.38463813 3.3199389 2.8580645e-39
0.36837891 -0.38634869 3.319931 2.8580645e-39
0.38934049 -0.38634562 3.319905 2.8580645e-39
0.41030183 -0.38634267 3.3198788 2.8580645e-39
-0.5049752 -0.37447402 3.3002048 1.1616649e-38
-0.48862702 -0.37070641 3.3007107 1.1616649e-38
-0.47163185 -0.36992753 3.3014584 1.1616649e-38
-0.44668144 -0.37177056 3.3027663 1.0233715e-38
-0.42921653 -0.37098882 3.3035355 1.1616649e-38
-0.41113177 -0.37015676 3.3043306 1.1616649e-38
-0.39243472 -0.37354505 3.3054523 1.0418106e-38
-0.37408701 -0.37304649 3.3062832 1.0602497e-38
-0.35104835 -0.37038463 3.3071833 1.1616649e-38
-0.33014297 -0.36941928 3.3081019 1.1616649e-38
-0.30921403 -0.37143752 3.309232 1.1616649e-38
-0.29137722 -0.3706108 3.3100157 1.1616649e-38
-0.27363363 -0.36498213 3.3104568 1.0418106e-38
-0.24990064 -0.36868829 3.3118384 1.1616649e-38
-0.2262089 -0.36624163 3.3127847 1.0141519e-38
-0.20855097 -0.36973926 3.3138647 1.1616649e-38
-0.1914349 -0.36975116 3.3146734 1.1616649e-38
-0.17032731 -0.37092185 3.3157525 1.1616649e-38
-0.14922294 -0.37211305 3.3168328 9.3117586e-39
-0.12942842 -0.36901206 3.3175485 1.1616649e-38
-0.10846972 -0.37017879 3.31862 1.1616649e-38
-0.089777313 -0.36912951 3.3194289 9.957128e-39
-0.072397724 -0.36242384 3.3197765 1.1616649e-38
0.15873562 -0.36239642 3.3199985 2.8580645e-39
0.17071491 -0.36239481 3.319984 2.8580645e-39
0.18616998 -0.36719719 3.3108406 5.7161291e-39
0.20964836 -0.36538717 3.3199599 2.8580645e-39
0.23146775 -0.36666888 3.3199432 2.8580645e-39
0.24858125 -0.3683795 3.3199353 2.8580645e-39
0.26954383 -0.36837667 3.3199098 2.8580645e-39
0.29050604 -0.36837378 3.3198833 2.8580645e-39
0.30847344 -0.36837128 3.3198614 2.8580645e-39
0.32943508 -0.36836839 3.3198352 2.8580645e-39
0.35039636 -0.3683655 3.3198092 2.8580645e-39
0.36836296 -0.36836302 3.319787 2.8580645e-39
0.38932371 -0.36836013 3.3197613 2.8580645e-39
0.41028401 -0.36835727 3.3197346 2.8580645e-39
0.42824978 -0.36835477 3.3197129 2.8580645e-39
0.44920963 -0.36835194 3.3196869 2.8580645e-39
0.47016898 -0.36834899 3.3196609 2.8580645e-39
0.48813397 -0.36834654 3.319639 2.8580645e-39
0.50909281 -0.36834368 3.3196125 2.8580645e-39
0.53005129 -0.36834079 3.3195863 2.8580645e-39
0.55100942 -0.36833796 3.3195608 2.8580645e-39
0.57196736 -0.36833504 3.3195348 2.8580645e-39
0.58993089 -0.36833256 3.3195126 2.8580645e-39
0.61088812 -0.3683297 3.3194866 2.8580645e-39
0.63184506 -0.36832681 3.3194602 2.8580645e-39
0.64980787 -0.36832434 3.3194387 2.8580645e-39
0.67076421 -0.36832142 3.3194122 2.8580645e-39
0.69172013 -0.36831859 3.319386 2.8580645e-39
0.70968217 -0.36831608 3.3193643 2.8580645e-39
0.73063749 -0.36831325 3.3193378 2.8580645e-39
0.75159252 -0.36831036 3.3193123 2.8580645e-39
0.76955366 -0.36830789 3.3192899 2.8580645e-39
0.79050815 -0.36830503 3.3192642 2.8580645e-39
0.81146222 -0.36830214 3.3192384 5.5317378e-39
0.82942265 -0.36829963 3.3192158 6.9146722e-39
0.85037613 -0.3682968 3.3191898 6.9146722e-39
0.87132931 -0.36829391 3.319164 6.9146722e-39
0.8892889 -0.36829144 3.3191414 9.6805411e-39
0.91024137 -0.36828852 3.3191156 1.3091779e-38
0.93119359 -0.36828563 3.3190897 1.3183975e-38
0.94915241 -0.36828318 3.3190672 1.3183975e-38
0.9701041 -0.36828035 3.3190413 1.4751301e-38
0.99105537 -0.36827743 3.3190155 1.5304475e-38
1.0090133 -0.36827493 3.3189933 1.5304475e-38
1.029964 -0.36827204 3.3189678 1.5304475e-38
-0.467031 -0.3506442 3.3003159 1.1432258e-38
-0.45193475 -0.34747714 3.3009539 9.219563e-39
-0.42971462 -0.34997511 3.3020301 1.1432258e-38
-0.41312152 -0.35083115 3.3029566 9.8649324e-39
-0.39093697 -0.35050842 3.3038988 9.5883455e-39
-0.36950788 -0.3502726 3.3048937 1.1432258e-38
-0.35154811 -0.34946495 3.3056843 1.1432258e-38
-0.33064318 -0.3485249 3.3066051 1.1432258e-38
-0.3097147 -0.35056818 3.3077371 1.1432258e-38
-0.29020268 -0.34883612 3.3085361 1.1432258e-38
-0.2705628 -0.35128221 3.3096356 1.1432258e-38
-0.25033078 -0.35086164 3.3105612 1.1524454e-38
-0.22966866 -0.34992528 3.3114707 1.1432258e-38
-0.20905365 -0.34899113 3.3123777 1.1432258e-38
-0.19080816 -0.34934962 3.3132641 1.1432258e-38
-0.17438233 -0.35336906 3.3143239 1.0049324e-38
-0.15035614 -0.34928831 3.3151703 1.1524454e-38
-0.12986061 -0.35130954 3.3162804 1.1524454e-38
-0.1094834 -0.35037914 3.3171761 1.1524454e-38
-0.090634592 -0.35161799 3.3181536 1.0325911e-38
-0.068876468 -0.34852499 3.3189626 1.1432258e-38
-0.050865665 -0.34549832 3.3195994 1.1432258e-38
0.050915033 -0.34442529 3.3199887 2.8580645e-39
0.068884596 -0.344423 3.3199663 2.8580645e-39
0.089849405 -0.3474178 3.3199644 2.8580645e-39
0.11081341 -0.34741506 3.3199382 2.8580645e-39
0.12878323 -0.35041022 3.3199401 2.8580645e-39
0.14974676 -0.35040754 3.3199139 2.8580645e-39
0.17070998 -0.35040474 3.3198884 2.8580645e-39
0.18867819 -0.35040244 3.3198659 2.8580645e-39
0.20964079 -0.35039967 3.3198402 2.8580645e-39
0.23060305 -0.35039696 3.319814 2.8580645e-39
0.24857047 -0.35039458 3.3197916 2.8580645e-39
0.26953211 -0.35039186 3.3197658 2.8580645e-39
0.29049343 -0.35038912 3.3197398 2.8580645e-39
0.30846006 -0.35038674 3.3197172 2.8580645e-39
0.3294208 -0.350384 3.3196914 2.8580645e-39
0.35038123 -0.35038128 3.3196657 2.8580645e-39
0.36834702 -0.3503789 3.319643 2.8580645e-39
0.38930678 -0.35037622 3.3196173 2.8580645e-39
0.41026631 -0.35037345 3.3195915 2.8580645e-39
0.42823124 -0.35037109 3.3195689 2.8580645e-39
0.44919011 -0.35036835 3.3195434 2.8580645e-39
0.47014868 -0.35036561 3.3195171 2.8580645e-39
0.48811284 -0.35036328 3.3194947 2.8580645e-39
0.50907075 -0.35036051 3.319469 2.8580645e-39
0.53002834 -0.3503578 3.3194427 2.8580645e-39
0.55098557 -0.35035503 3.3194175 2.8580645e-39
0.57194263 -0.35035232 3.319391 2.8580645e-39
0.58990538 -0.35034996 3.3193686 2.8580645e-39
0.61086172 -0.35034722 3.3193426 2.8580645e-39
0.6318177 -0.35034445 3.3193169 2.8580645e-39
0.64977974 -0.35034215 3.3192945 2.8580645e-39
0.67073512 -0.35033941 3.3192689 2.8580645e-39
0.69169015 -0.35033667 3.3192425 2.8580645e-39
0.70965147 -0.35033432 3.3192203 2.8580645e-39
0.73060596 -0.35033154 3.3191946 2.8580645e-39
0.75156003 -0.35032883 3.3191683 2.8580645e-39
0.76952034 -0.35032645 3.3191464 2.8580645e-39
0.79047388 -0.35032374 3.3191209 7.467846e-39
0.81142718 -0.35032099 3.3190942 1.2815193e-38
0.82938671 -0.35031864 3.3190722 1.4659105e-38
0.85033935 -0.3503159 3.319046 1.4659105e-38
0.87129158 -0.35031313 3.31902 1.4751301e-38
0.88925034 -0.3503108 3.3189981 1.4751301e-38
0.91020203 -0.35030806 3.3189721 1.4751301e-38
0.9311533 -0.35030535 3.3189456 1.4843496e-38
0.94911128 -0.35030299 3.318924 1.4843496e-38
0.9700622 -0.35030025 3.318898 1.4843496e-38
0.99101239 -0.35029751 3.3188717 1.4935692e-38
1.0089697 -0.35029519 3.3188498 1.4935692e-38
1.0299194 -0.35029241 3.3188238 1.4935692e-38
1.0508687 -0.3502897 3.3187978 1.4935692e-38
1.0688252 -0.35028735 3.3187754 1.4935692e-38
-0.44516838 -0.33562982 3.3002892 1.1432258e-38
-0.42944056 -0.32968119 3.3006122 1.1340062e-38
-0.405451 -0.32442057 3.301374 9.5883455e-39
-0.38970026 -0.33105224 3.3025851 1.1340062e-38
-0.37000725 -0.32933345 3.3033938 1.1340062e-38
-0.34981605 -0.33089715 3.3044574 1.1340062e-38
-0.32806543 -0.33040813 3.3054495 9.957128e-39
-0.31410936 -0.32541513 3.3100996 1.0141519e-38
-0.28941125 -0.32878679 3.3071594 1.1340062e-38
-0.2680642 -0.3300136 3.3082542 1.1340062e-38
-0.25083262 -0.33006573 3.3090711 1.1340062e-38
-0.23074606 -0.32977352 3.309999 1.1340062e-38
-0.20948449 -0.33120868 3.3111036 1.1340062e-38
-0.18517429 -0.32763967 3.3120003 9.7727368e-39
-0.16956246 -0.3300333 3.3129056 1.1340062e-38
-0.14494006 -0.33286938 3.314281 9.4039542e-39
-0.13036484 -0.33065856 3.3147998 1.1340062e-38
-0.10890414 -0.32510924 3.3178458 7.0990635e-39
-0.09015467 -0.32530522 3.3183095 7.0990635e-39
-0.068498105 -0.326873 3.318831 7.0990635e-39
-0.049997181 -0.32672036 3.3192682 7.0990635e-39
-0.029383324 -0.32714444 3.3196673 7.0990635e-39
-0.012273792 -0.32551309 3.3198547 7.0990635e-39
0.0095293429 -0.32862613 3.3199134 2.8580645e-39
0.029949162 -0.3294411 3.319895 2.8580645e-39
0.0509132 -0.32943851 3.3198686 2.8580645e-39
0.068882108 -0.3294363 3.3198462 2.8580645e-39
0.089845516 -0.32943374 3.3198202 2.8580645e-39
0.11080863 -0.32943115 3.3197947 2.8580645e-39
0.12877671 -0.32942894 3.3197725 2.8580645e-39
0.14973918 -0.32942635 3.3197463 2.8580645e-39
0.17070135 -0.32942379 3.3197203 2.8580645e-39
0.18866865 -0.32942158 3.3196979 2.8580645e-39
0.20963018 -0.32941899 3.3196721 2.8580645e-39
0.23059139 -0.32941645 3.3196459 2.8580645e-39
0.24855793 -0.32941419 3.3196239 2.8580645e-39
0.26951849 -0.32941166 3.319598 2.8580645e-39
0.2904788 -0.32940906 3.319572 2.8580645e-39
0.3084445 -0.32940686 3.31955 2.8580645e-39
0.32940418 -0.32940429 3.3195236 2.8580645e-39
0.35036355 -0.3294017 3.3194981 2.8580645e-39
0.36832842 -0.3293995 3.3194752 2.8580645e-39
0.38928711 -0.3293969 3.3194499 2.8580645e-39
0.41024551 -0.32939434 3.3194234 2.8580645e-39
0.42820963 -0.32939214 3.3194015 2.8580645e-39
0.44916743 -0.32938954 3.3193755 2.8580645e-39
0.47012484 -0.32938695 3.3193493 2.8580645e-39
0.48808822 -0.32938477 3.3193271 2.8580645e-39
0.509045 -0.32938218 3.3193011 2.8580645e-39
0.53000158 -0.32937962 3.3192749 2.8580645e-39
0.5509578 -0.32937703 3.3192489 2.8580645e-39
0.57191366 -0.32937446 3.3192232 2.8580645e-39
0.58987558 -0.32937229 3.3192012 2.8580645e-39
0.61083078 -0.32936969 3.319175 2.8580645e-39
0.63178575 -0.32936713 3.3191497 2.8580645e-39
0.64974689 -0.32936493 3.3191268 2.8580645e-39
0.67070127 -0.3293623 3.3191013 2.8580645e-39
0.69165528 -0.32935977 3.3190753 2.8580645e-39
0.70961559 -0.32935756 3.3190532 2.8580645e-39
0.73056889 -0.32935497 3.3190267 2.8580645e-39
0.751522 -0.32935244 3.3190012 2.8580645e-39
0.76948154 -0.32935017 3.3189783 2.8580645e-39
0.790434 -0.32934758 3.318953 7.1912591e-39
0.81138611 -0.32934505 3.3189268 1.097128e-38
0.82934487 -0.32934284 3.3189046 1.392154e-38
0.85029626 -0.32934028 3.3188784 1.392154e-38
0.87124753 -0.32933769 3.3188524 1.4013736e-38
0.88920546 -0.32933548 3.3188305 1.4013736e-38
0.91015601 -0.32933289 3.3188043 1.4105931e-38
0.93110627 -0.32933033 3.3187785 1.4105931e-38
0.94906348 -0.32932812 3.3187561 1.4105931e-38
0.97001296 -0.32932556 3.3187296 1.4198127e-38
0.99096239 -0.32932296 3.3187044 1.4198127e-38
1.0089186 -0.32932079 3.3186822 1.4290323e-38
1.0298674 -0.32931817 3.3186557 1.4290323e-38
1.0508158 -0.3293156 3.3186302 1.4290323e-38
1.0687714 -0.3293134 3.318608 1.4382518e-38
-0.40723616 -0.31221011 3.3004291 1.1247867e-38
-0.38850278 -0.30916205 3.3010981 1.1247867e-38
-0.37050653 -0.30839622 3.3018939 1.1155671e-38
-0.35429949 -0.31462431 3.3030984 9.3117586e-39
-0.32858843 -0.30959922 3.3039577 1.1247867e-38
-0.31126812 -0.31064904 3.3048489 1.1247867e-38
-0.28984064 -0.3109237 3.3058801 1.1247867e-38
-0.26616302 -0.31004226 3.3071938 9.957128e-39
-0.25133434 -0.30927175 3.3075812 1.1247867e-38
-0.22729819 -0.30588228 3.3142924 7.0068679e-39
-0.21078178 -0.3083005 3.3121533 8.2054111e-39
-0.18901578 -0.30727643 3.3136098 8.3898023e-39
-0.17008215 -0.30799031 3.3157423 7.0068679e-39
-0.1500487 -0.30815741 3.3148327 8.3898023e-39
-0.1298258 -0.30924436 3.316622 7.0068679e-39
-0.11065236 -0.30880275 3.3170609 7.0068679e-39
-0.089571998 -0.30918464 3.317575 7.0068679e-39
-0.069348596 -0.30939204 3.3180363 7.0068679e-39
-0.050249122 -0.30895185 3.3184717 7.0068679e-39
-0.029941499 -0.30940449 3.3189549 7.0068679e-39
-0.009090228 -0.30953854 3.3194408 7.0068679e-39
0.0093217231 -0.3073695 3.3197222 7.0068679e-39
0.02994765 -0.30846101 3.3197267 2.8580645e-39
0.050910622 -0.30845863 3.3197005 2.8580645e-39
0.068878628 -0.30845654 3.3196788 2.8580645e-39
0.089840978 -0.30845416 3.319653 2.8580645e-39
0.11080301 -0.30845171 3.3196263 2.8580645e-39
0.1287702 -0.30844963 3.3196046 2.8580645e-39
0.14973164 -0.30844724 3.3195786 2.8580645e-39
0.17069273 -0.30844483 3.3195527 2.8580645e-39
0.18865912 -0.30844277 3.3195305 2.8580645e-39
0.20961961 -0.30844036 3.3195045 2.8580645e-39
0.23057975 -0.30843794 3.3194788 2.8580645e-39
0.24854536 -0.30843586 3.3194561 2.8580645e-39
0.2695049 -0.30843347 3.3194301 2.8580645e-39
0.29046413 -0.30843106 3.3194041 2.8580645e-39
0.30842891 -0.30842897 3.319382 2.8580645e-39
0.32938755 -0.30842656 3.319356 2.8580645e-39
0.35034579 -0.30842414 3.3193302 2.8580645e-39
0.36830977 -0.30842209 3.3193078 2.8580645e-39
0.38926744 -0.3084197 3.3192821 2.8580645e-39
0.41022483 -0.30841726 3.3192558 2.8580645e-39
0.428188 -0.3084152 3.3192334 2.8580645e-39
0.44914472 -0.30841279 3.3192079 2.8580645e-39
0.47010115 -0.30841041 3.3191814 2.8580645e-39
0.48806348 -0.30840829 3.3191593 2.8580645e-39
0.50901932 -0.30840588 3.3191335 2.8580645e-39
0.52997476 -0.30840346 3.319108 2.8580645e-39
0.55093002 -0.30840105 3.3190813 2.8580645e-39
0.57188481 -0.30839863 3.3190556 2.8580645e-39
0.58984578 -0.30839658 3.3190339 2.8580645e-39
0.61079997 -0.30839413 3.3190076 2.8580645e-39
0.63175392 -0.30839175 3.3189814 2.8580645e-39
0.64971399 -0.30838969 3.318959 2.8580645e-39
0.67066735 -0.30838728 3.3189335 2.8580645e-39
0.69162029 -0.30838487 3.3189073 2.8580645e-39
0.70957977 -0.30838281 3.3188851 2.8580645e-39
0.73053211 -0.30838042 3.3188591 2.8580645e-39
0.75148404 -0.30837798 3.3188334 2.8580645e-39
0.76944268 -0.30837592 3.3188112 2.8580645e-39
0.79039407 -0.30837351 3.3187852 6.8224766e-39
0.8113451 -0.3083711 3.3187592 9.4039542e-39
0.82930297 -0.30836901 3.318737 1.2999584e-38
0.85025334 -0.3083666 3.3187108 1.2999584e-38
0.8712036 -0.30836424 3.3186853 1.3091779e-38
0.88916057 -0.30836216 3.3186626 1.3091779e-38
0.91011012 -0.30835971 3.3186367 1.3183975e-38
0.93105918 -0.30835736 3.3186109 1.3183975e-38
0.9490155 -0.30835524 3.3185883 1.3276171e-38
0.96996397 -0.30835283 3.318563 1.3276171e-38
0.99091232 -0.30835044 3.3185368 1.3368366e-38
1.0088677 -0.30834839 3.3185143 1.3368366e-38
1.0298154 -0.30834591 3.3184881 1.3460562e-38
1.0507628 -0.30834356 3.3184624 1.3460562e-38
1.0687174 -0.30834147 3.3184402 1.3460562e-38
-0.38483214 -0.29502365 3.3002746 1.1155671e-38
-0.37016746 -0.29116854 3.3006952 1.1063476e-38
-0.35137206 -0.28475574 3.3073165 7.0068679e-39
-0.32926905 -0.28661945 3.3112209 6.9146722e-39
-0.30880436 -0.28806886 3.3116984 6.9146722e-39
-0.290427 -0.28880143 3.3121717 6.9146722e-39
-0.26861411 -0.28971806 3.3102446 7.5600416e-39
-0.249589 -0.29065853 3.3131213 6.9146722e-39
-0.2304478 -0.29079962 3.3135996 6.9146722e-39
-0.2100665 -0.29011399 3.3140054 6.9146722e-39
-0.1893025 -0.28968245 3.3144474 6.9146722e-39
-0.16976728 -0.29031566 3.3149793 6.9146722e-39
-0.14651194 -0.29184359 3.3142185 7.8366285e-39
-0.12905778 -0.29022786 3.3158793 6.9146722e-39
